-1.932 -8.085 -1.35
-1.901 -8.068 -1.346
-1.888 -8.069 -1.346
-1.859 -8.06 -1.343
-1.83 -8.046 -1.339
-1.805 -8.056 -1.34
-1.777 -8.048 -1.337
-1.749 -8.04 -1.335
-1.722 -8.038 -1.334
-1.71 -8.042 -1.334
-1.68 -8.027 -1.33
-1.652 -8.016 -1.327
-1.625 -8.016 -1.326
-1.599 -8.015 -1.325
-1.571 -8.006 -1.323
-1.545 -8.006 -1.322
-1.53 -7.992 -1.319
-1.504 -7.997 -1.319
-1.476 -7.984 -1.316
-1.45 -7.981 -1.314
-1.422 -7.968 -1.311
-1.395 -7.963 -1.31
-1.369 -7.962 -1.308
-1.357 -7.966 -1.309
-1.33 -7.96 -1.307
-1.303 -7.955 -1.305
-1.275 -7.939 -1.302
-1.25 -7.943 -1.302
-1.222 -7.924 -1.298
-1.198 -7.931 -1.298
-1.183 -7.922 -1.296
-1.153 -7.886 -1.289
-1.114 -7.786 -1.271
-1.089 -7.786 -1.27
-1.064 -7.786 -1.269
-1.037 -7.773 -1.267
-1.014 -7.784 -1.268
-1.001 -7.784 -1.268
-0.974 -7.76 -1.263
-0.949 -7.761 -1.262
-0.924 -7.76 -1.262
-0.898 -7.751 -1.26
-0.873 -7.746 -1.258
-0.849 -7.747 -1.258
-0.836 -7.744 -1.257
-0.811 -7.741 -1.256
-0.786 -7.735 -1.255
-0.761 -7.728 -1.253
-0.736 -7.719 -1.251
-0.711 -7.723 -1.251
-0.686 -7.713 -1.249
-0.661 -7.706 -1.247
-0.649 -7.701 -1.246
-0.623 -7.687 -1.243
-0.599 -7.691 -1.244
-0.578 -7.742 -1.253
-0.558 -7.797 -1.262
-0.532 -7.779 -1.259
-0.507 -7.772 -1.257
-0.494 -7.765 -1.256
-0.47 -7.767 -1.256
-0.445 -7.751 -1.253
-0.42 -7.752 -1.253
-0.396 -7.757 -1.253
-0.371 -7.743 -1.25
-0.347 -7.748 -1.251
-0.334 -7.733 -1.248
-0.309 -7.726 -1.247
-0.285 -7.729 -1.247
-0.261 -7.722 -1.246
-0.236 -7.712 -1.244
-0.212 -7.713 -1.244
-0.188 -7.708 -1.243
-0.175 -7.696 -1.241
-0.151 -7.693 -1.24
-0.127 -7.691 -1.24
-0.103 -7.676 -1.237
-0.078 -7.682 -1.238
-0.054 -7.678 -1.238
-0.03 -7.675 -1.237
-0.018 -7.657 -1.234
0.006 -7.659 -1.234
0.03 -7.657 -1.234
0.054 -7.661 -1.234
0.078 -7.657 -1.234
0.102 -7.664 -1.235
0.126 -7.646 -1.232
0.15 -7.634 -1.23
0.162 -7.626 -1.228
0.185 -7.625 -1.228
0.209 -7.613 -1.226
0.233 -7.61 -1.226
0.257 -7.609 -1.226
0.28 -7.601 -1.225
0.304 -7.596 -1.224
0.316 -7.589 -1.223
0.34 -7.592 -1.224
0.363 -7.583 -1.222
0.388 -7.592 -1.224
0.411 -7.587 -1.223
0.434 -7.572 -1.221
0.458 -7.57 -1.221
0.47 -7.568 -1.22
0.493 -7.562 -1.22
0.517 -7.565 -1.22
0.541 -7.565 -1.221
0.564 -7.553 -1.219
0.587 -7.546 -1.218
0.611 -7.54 -1.217
0.622 -7.535 -1.217
0.646 -7.535 -1.217
0.671 -7.546 -1.219
0.694 -7.533 -1.217
0.718 -7.534 -1.218
0.741 -7.526 -1.217
0.763 -7.508 -1.214
0.776 -7.521 -1.217
0.801 -7.526 -1.218
0.822 -7.502 -1.214
0.845 -7.499 -1.214
0.868 -7.493 -1.213
0.89 -7.476 -1.211
0.914 -7.477 -1.212
0.926 -7.472 -1.211
0.948 -7.459 -1.209
0.972 -7.464 -1.211
0.995 -7.459 -1.21
1.019 -7.456 -1.21
1.041 -7.445 -1.209
1.066 -7.451 -1.211
1.076 -7.44 -1.209
1.099 -7.434 -1.209
1.124 -7.441 -1.21
1.146 -7.425 -1.208
1.169 -7.42 -1.208
1.192 -7.418 -1.208
1.215 -7.412 -1.208
1.239 -7.41 -1.208
1.249 -7.401 -1.207
1.273 -7.399 -1.207
1.297 -7.399 -1.208
1.324 -7.416 -1.212
1.344 -7.396 -1.209
1.366 -7.382 -1.207
1.388 -7.376 -1.207
1.399 -7.368 -1.206
1.42 -7.356 -1.204
1.444 -7.355 -1.205
1.469 -7.36 -1.207
1.493 -7.355 -1.207
1.518 -7.362 -1.209
1.536 -7.332 -1.204
1.551 -7.347 -1.207
1.57 -7.325 -1.204
1.597 -7.336 -1.207
1.619 -7.325 -1.206
1.641 -7.318 -1.206
1.663 -7.307 -1.205
1.685 -7.3 -1.204
1.699 -7.307 -1.206
1.724 -7.311 -1.208
1.751 -7.321 -1.211
1.768 -7.29 -1.206
1.792 -7.29 -1.207
1.815 -7.287 -1.207
1.838 -7.281 -1.207
1.852 -7.287 -1.209
1.876 -7.285 -1.21
1.897 -7.274 -1.209
1.919 -7.264 -1.208
1.942 -7.256 -1.208
1.966 -7.257 -1.209
1.988 -7.246 -1.208
2.011 -7.241 -1.209
2.024 -7.246 -1.21
2.047 -7.237 -1.21
2.069 -7.231 -1.21
2.093 -7.228 -1.21
2.116 -7.223 -1.211
2.137 -7.209 -1.209
2.152 -7.217 -1.211
2.175 -7.212 -1.212
2.198 -7.205 -1.212
2.22 -7.198 -1.212
2.242 -7.188 -1.211
2.268 -7.194 -1.213
2.292 -7.188 -1.214
2.303 -7.185 -1.214
2.324 -7.172 -1.213
2.35 -7.178 -1.215
2.374 -7.174 -1.216
2.395 -7.163 -1.215
2.422 -7.166 -1.217
2.441 -7.149 -1.216
2.465 -7.145 -1.216
2.478 -7.147 -1.217
2.503 -7.147 -1.219
2.523 -7.131 -1.217
2.55 -7.136 -1.22
2.568 -7.115 -1.217
2.591 -7.109 -1.218
2.618 -7.114 -1.22
2.627 -7.104 -1.219
2.651 -7.1 -1.22
2.676 -7.099 -1.221
2.697 -7.088 -1.221
2.723 -7.089 -1.223
2.746 -7.082 -1.223
2.768 -7.072 -1.223
2.755 -7.007 -1.211
2.77 -6.982 -1.208
2.793 -6.975 -1.208
2.816 -6.97 -1.209
2.842 -6.972 -1.211
2.864 -6.961 -1.211
2.889 -6.961 -1.212
2.902 -6.96 -1.213
2.924 -6.953 -1.213
2.946 -6.944 -1.213
2.973 -6.945 -1.216
2.994 -6.934 -1.215
3.021 -6.937 -1.218
3.043 -6.928 -1.218
3.053 -6.921 -1.217
3.075 -6.913 -1.218
3.106 -6.923 -1.221
3.12 -6.897 -1.218
3.146 -6.896 -1.22
3.179 -6.912 -1.225
3.203 -6.905 -1.226
3.225 -6.897 -1.226
3.242 -6.904 -1.228
3.259 -6.885 -1.227
3.293 -6.9 -1.232
3.415 -7.097 -1.272
3.436 -7.082 -1.272
3.46 -7.075 -1.272
3.469 -7.066 -1.272
3.479 -7.03 -1.267
3.506 -7.028 -1.269
3.53 -7.022 -1.27
3.551 -7.008 -1.269
3.568 -6.988 -1.267
3.597 -6.991 -1.27
3.611 -6.964 -1.267
3.622 -6.958 -1.267
3.64 -6.939 -1.266
3.664 -6.931 -1.266
3.689 -6.927 -1.268
3.708 -6.91 -1.267
3.728 -6.895 -1.266
3.75 -6.885 -1.266
3.767 -6.889 -1.268
3.769 -6.841 -1.261
3.804 -6.855 -1.266
3.83 -6.85 -1.268
3.849 -6.835 -1.267
3.871 -6.823 -1.267
3.891 -6.809 -1.267
3.902 -6.802 -1.267
3.912 -6.771 -1.263
3.951 -6.788 -1.269
3.973 -6.777 -1.269
3.993 -6.763 -1.269
4.011 -6.745 -1.268
4.034 -6.734 -1.268
4.045 -6.73 -1.268
4.065 -6.715 -1.268
4.083 -6.698 -1.267
4.113 -6.698 -1.27
4.134 -6.685 -1.27
4.152 -6.669 -1.269
4.18 -6.666 -1.271
4.193 -6.664 -1.272
4.213 -6.649 -1.272
4.221 -6.616 -1.268
4.262 -6.634 -1.274
4.282 -6.619 -1.274
4.314 -6.622 -1.277
4.33 -6.602 -1.276
4.342 -6.597 -1.276
4.366 -6.588 -1.277
4.377 -6.561 -1.275
4.412 -6.569 -1.279
4.44 -6.564 -1.281
4.461 -6.552 -1.282
4.485 -6.543 -1.283
4.501 -6.544 -1.284
4.522 -6.53 -1.284
4.527 -6.495 -1.28
4.571 -6.513 -1.287
4.592 -6.5 -1.287
4.623 -6.5 -1.29
4.642 -6.484 -1.29
4.667 -6.475 -1.291
4.682 -6.474 -1.293
4.693 -6.447 -1.29
4.735 -6.462 -1.297
4.678 -6.343 -1.274
3.861 -5.208 -1.025
3.862 -5.176 -1.021
3.894 -5.184 -1.025
3.912 -5.192 -1.029
4.862 -6.4 -1.301
4.899 -6.406 -1.306
4.928 -6.403 -1.309
4.951 -6.391 -1.31
4.988 -6.397 -1.314
4.996 -6.366 -1.311
5.013 -6.367 -1.313
5.039 -6.359 -1.315
5.08 -6.369 -1.321
5.1 -6.353 -1.321
4.114 -5.1 -1.038
5.151 -6.335 -1.324
4.231 -5.177 -1.061
4.252 -5.186 -1.065
4.265 -5.169 -1.064
5.252 -6.316 -1.333
5.285 -6.314 -1.336
4.262 -5.067 -1.05
4.285 -5.063 -1.052
4.322 -5.073 -1.058
4.362 -5.104 -1.066
4.385 -5.099 -1.068
4.42 -5.106 -1.073
4.433 -5.089 -1.073
4.417 -5.007 -1.06
4.511 -5.081 -1.081
4.41 -4.952 -1.052
4.443 -4.927 -1.052
4.448 -4.902 -1.05
4.533 -4.963 -1.068
4.665 -5.074 -1.098
5.84 -6.303 -1.4
5.851 -6.295 -1.4
5.89 -6.297 -1.405
5.911 -6.28 -1.405
5.876 -6.204 -1.391
5.902 -6.193 -1.393
5.966 -6.22 -1.404
5.884 -6.096 -1.378
4.89 -5.057 -1.123
4.9 -5.036 -1.122
4.931 -5.036 -1.126
6.068 -6.15 -1.408
6.1 -6.143 -1.411
6.111 -6.116 -1.409
6.137 -6.104 -1.411
6.148 -6.095 -1.411
6.177 -6.086 -1.414
6.202 -6.072 -1.415
6.173 -6.006 -1.403
5.127 -4.963 -1.141
5.139 -4.944 -1.14
5.189 -4.96 -1.149
5.218 -4.956 -1.152
6.281 -5.941 -1.409
6.309 -5.929 -1.411
5.301 -4.957 -1.163
6.357 -5.9 -1.414
6.377 -5.881 -1.414
6.396 -5.861 -1.414
6.424 -5.85 -1.417
6.429 -5.836 -1.416
5.488 -4.956 -1.187
5.514 -4.948 -1.19
6.335 -5.644 -1.38
6.515 -5.767 -1.419
6.526 -5.74 -1.417
6.548 -5.723 -1.418
6.553 -5.709 -1.417
6.578 -5.695 -1.419
6.592 -5.67 -1.418
6.606 -5.647 -1.417
6.629 -5.63 -1.418
6.63 -5.595 -1.414
6.649 -5.576 -1.415
6.67 -5.575 -1.418
6.684 -5.552 -1.417
6.706 -5.534 -1.418
6.731 -5.52 -1.42
6.759 -5.507 -1.422
6.779 -5.488 -1.423
6.793 -5.464 -1.422
6.8 -5.453 -1.422
6.825 -5.437 -1.423
6.845 -5.418 -1.424
6.866 -5.399 -1.425
6.887 -5.381 -1.426
6.909 -5.363 -1.427
6.891 -5.315 -1.419
6.904 -5.308 -1.42
6.936 -5.298 -1.424
6.967 -5.287 -1.427
7.004 -5.28 -1.431
7.024 -5.261 -1.432
7.039 -5.237 -1.432
7.054 -5.214 -1.431
7.075 -5.195 -1.433
7.091 -5.19 -1.434
7.117 -5.175 -1.436
7.133 -5.152 -1.436
7.156 -5.134 -1.438
7.173 -5.113 -1.438
7.197 -5.096 -1.44
7.223 -5.08 -1.442
7.226 -5.065 -1.441
7.247 -5.046 -1.442
7.251 -5.015 -1.44
7.264 -4.99 -1.439
7.291 -4.975 -1.441
7.31 -4.955 -1.442
7.327 -4.933 -1.442
7.331 -4.919 -1.442
7.353 -4.9 -1.443
7.367 -4.876 -1.443
7.384 -4.854 -1.443
7.398 -4.83 -1.443
7.409 -4.804 -1.442
7.419 -4.778 -1.441
7.425 -4.765 -1.441
7.44 -4.742 -1.441
7.468 -4.727 -1.443
7.48 -4.701 -1.443
7.491 -4.676 -1.442
7.516 -4.658 -1.444
7.536 -4.638 -1.445
7.538 -4.623 -1.444
7.559 -4.603 -1.445
7.567 -4.575 -1.444
7.591 -4.558 -1.446
7.611 -4.537 -1.447
7.627 -4.514 -1.448
7.646 -4.493 -1.449
7.655 -4.482 -1.449
7.674 -4.461 -1.45
7.686 -4.436 -1.45
7.703 -4.413 -1.45
7.719 -4.39 -1.451
7.736 -4.368 -1.451
7.762 -4.35 -1.454
7.767 -4.337 -1.454
7.787 -4.316 -1.455
7.79 -4.286 -1.453
7.813 -4.266 -1.455
7.828 -4.243 -1.455
7.848 -4.222 -1.456
7.873 -4.204 -1.459
7.889 -4.196 -1.46
7.912 -4.177 -1.463
7.924 -4.151 -1.462
7.951 -4.133 -1.465
7.951 -4.102 -1.463
7.962 -4.076 -1.462
7.915 -4.021 -1.45
8.008 -4.052 -1.467
8.036 -4.034 -1.471
8.063 -4.016 -1.473
8.081 -3.993 -1.474
8.097 -3.97 -1.475
8.115 -3.947 -1.476
8.122 -3.919 -1.475
8.124 -3.904 -1.474
8.146 -3.883 -1.476
8.163 -3.86 -1.477
8.177 -3.835 -1.478
8.196 -3.812 -1.479
8.217 -3.791 -1.481
8.202 -3.753 -1.476
8.239 -3.738 -1.48
8.272 -3.737 -1.486
8.231 -3.688 -1.476
8.196 -3.642 -1.466
8.325 -3.667 -1.489
8.349 -3.647 -1.492
8.344 -3.613 -1.488
8.297 -3.562 -1.477
8.285 -3.542 -1.474
8.294 -3.515 -1.473
8.294 -3.484 -1.471
8.31 -3.46 -1.472
8.259 -3.409 -1.46
8.314 -3.401 -1.469
8.361 -3.389 -1.476
8.386 -3.384 -1.48
8.406 -3.361 -1.481
8.433 -3.341 -1.485
8.456 -3.32 -1.487
8.452 -3.288 -1.484
8.529 -3.286 -1.497
8.511 -3.249 -1.492
8.568 -3.255 -1.501
8.567 -3.224 -1.499
8.684 -3.237 -1.52
8.707 -3.214 -1.522
8.738 -3.194 -1.526
8.753 -3.169 -1.527
8.759 -3.14 -1.526
8.774 -3.13 -1.528
8.774 -3.099 -1.526
8.789 -3.073 -1.527
8.793 -3.044 -1.526
8.809 -3.018 -1.527
8.824 -2.992 -1.528
8.833 -2.964 -1.528
8.842 -2.936 -1.528
8.854 -2.925 -1.53
8.871 -2.9 -1.531
8.884 -2.873 -1.532
8.902 -2.848 -1.534
8.917 -2.822 -1.535
8.922 -2.793 -1.534
8.929 -2.764 -1.534
8.944 -2.753 -1.536
8.938 -2.721 -1.533
8.935 -2.689 -1.531
8.911 -2.652 -1.525
8.946 -2.631 -1.53
8.986 -2.613 -1.536
9.0 -2.586 -1.537
9.012 -2.574 -1.538
9.016 -2.545 -1.537
9.03 -2.518 -1.538
9.041 -2.49 -1.539
9.061 -2.465 -1.541
9.063 -2.435 -1.54
9.074 -2.408 -1.541
9.093 -2.382 -1.543
9.095 -2.367 -1.543
9.108 -2.34 -1.544
9.113 -2.311 -1.543
9.122 -2.283 -1.544
9.143 -2.257 -1.546
9.152 -2.229 -1.546
9.161 -2.216 -1.548
9.178 -2.19 -1.549
9.188 -2.162 -1.55
9.201 -2.134 -1.551
9.215 -2.107 -1.552
9.224 -2.078 -1.553
9.238 -2.051 -1.554
9.255 -2.04 -1.557
9.278 -2.014 -1.56
9.284 -1.985 -1.56
9.296 -1.957 -1.561
9.308 -1.929 -1.562
9.311 -1.899 -1.561
9.27 -1.861 -1.553
9.314 -1.854 -1.56
9.319 -1.825 -1.56
9.311 -1.793 -1.558
9.329 -1.766 -1.56
9.342 -1.738 -1.561
9.357 -1.71 -1.563
9.364 -1.681 -1.563
9.348 -1.648 -1.559
9.281 -1.621 -1.547
9.303 -1.595 -1.55
9.345 -1.572 -1.557
9.393 -1.55 -1.564
9.579 -1.549 -1.597
9.615 -1.524 -1.602
9.689 -1.504 -1.615
9.756 -1.498 -1.626
9.821 -1.477 -1.637
9.841 -1.448 -1.64
9.854 -1.418 -1.642
9.86 -1.388 -1.642
9.882 -1.359 -1.645
9.892 -1.329 -1.646
9.898 -1.314 -1.647
9.914 -1.284 -1.649
9.914 -1.252 -1.648
9.916 -1.221 -1.648
9.923 -1.19 -1.648
9.929 -1.159 -1.649
9.946 -1.13 -1.651
9.944 -1.114 -1.651
9.942 -1.082 -1.65
9.955 -1.052 -1.651
9.962 -1.021 -1.652
9.969 -0.99 -1.653
9.976 -0.959 -1.653
9.989 -0.928 -1.655
9.99 -0.913 -1.655
9.989 -0.881 -1.654
10.004 -0.851 -1.657
9.993 -0.818 -1.654
10.005 -0.787 -1.656
10.007 -0.756 -1.656
10.016 -0.725 -1.657
10.017 -0.709 -1.657
10.027 -0.678 -1.658
10.037 -0.647 -1.66
10.031 -0.615 -1.658
10.046 -0.584 -1.661
10.038 -0.552 -1.659
10.026 -0.52 -1.657
10.046 -0.489 -1.66
10.038 -0.473 -1.658
10.032 -0.441 -1.657
10.055 -0.411 -1.661
10.041 -0.379 -1.658
10.046 -0.347 -1.659
10.041 -0.315 -1.658
10.046 -0.284 -1.658
10.046 -0.268 -1.658
10.047 -0.237 -1.658
10.048 -0.205 -1.658
10.04 -0.173 -1.657
10.045 -0.142 -1.658
10.045 -0.11 -1.658
10.039 -0.079 -1.657
10.051 -0.063 -1.659
10.054 -0.031 -1.659
9.747 0.001 -1.677
9.739 0.032 -1.675
9.731 0.047 -1.674
9.748 0.077 -1.677
9.74 0.108 -1.675
9.742 0.139 -1.676
9.741 0.169 -1.676
9.741 0.2 -1.676
9.742 0.23 -1.676
9.744 0.246 -1.677
9.749 0.277 -1.678
9.75 0.307 -1.678
9.745 0.338 -1.677
9.74 0.368 -1.677
9.74 0.399 -1.677
9.743 0.43 -1.678
9.746 0.445 -1.678
9.749 0.476 -1.679
9.749 0.507 -1.679
9.744 0.537 -1.679
9.722 0.567 -1.675
9.74 0.598 -1.679
9.734 0.629 -1.678
9.737 0.644 -1.679
9.745 0.675 -1.681
9.737 0.706 -1.679
9.733 0.736 -1.679
9.738 0.767 -1.681
9.734 0.798 -1.68
9.739 0.829 -1.682
9.736 0.844 -1.681
9.727 0.874 -1.68
9.734 0.906 -1.682
9.733 0.936 -1.682
9.746 0.968 -1.685
9.733 0.998 -1.683
9.73 1.029 -1.683
9.721 1.059 -1.682
9.723 1.074 -1.683
9.721 1.105 -1.683
9.726 1.136 -1.685
9.722 1.167 -1.685
9.714 1.197 -1.684
9.724 1.229 -1.687
9.717 1.259 -1.686
9.701 1.273 -1.683
9.703 1.304 -1.685
9.699 1.335 -1.685
9.679 1.363 -1.682
9.667 1.392 -1.68
9.676 1.424 -1.683
9.654 1.452 -1.679
9.673 1.471 -1.683
9.67 1.501 -1.684
9.675 1.533 -1.686
9.664 1.563 -1.685
9.671 1.595 -1.687
9.668 1.626 -1.687
9.655 1.655 -1.686
9.674 1.673 -1.69
9.668 1.704 -1.69
9.657 1.733 -1.689
9.663 1.766 -1.691
9.654 1.795 -1.69
9.652 1.826 -1.691
9.65 1.857 -1.691
9.667 1.876 -1.695
9.647 1.904 -1.693
9.651 1.936 -1.694
9.641 1.966 -1.694
9.64 1.997 -1.695
9.634 2.027 -1.695
9.639 2.06 -1.697
9.617 2.087 -1.694
9.627 2.105 -1.697
9.64 2.139 -1.7
9.614 2.165 -1.697
9.613 2.197 -1.698
9.621 2.231 -1.701
9.607 2.259 -1.699
9.613 2.292 -1.702
9.605 2.307 -1.701
9.592 2.335 -1.7
9.604 2.37 -1.703
9.591 2.399 -1.702
9.593 2.431 -1.704
9.579 2.46 -1.703
9.579 2.492 -1.705
9.575 2.507 -1.705
9.564 2.536 -1.704
9.575 2.571 -1.707
9.559 2.599 -1.706
9.551 2.629 -1.706
9.546 2.66 -1.707
9.559 2.696 -1.711
9.543 2.708 -1.709
9.532 2.737 -1.708
9.524 2.767 -1.708
9.515 2.797 -1.708
9.519 2.831 -1.711
9.503 2.859 -1.709
9.479 2.884 -1.706
9.489 2.903 -1.709
9.471 2.93 -1.707
9.484 2.967 -1.712
9.454 2.99 -1.708
9.471 3.028 -1.713
9.445 3.053 -1.71
9.463 3.092 -1.715
9.428 3.097 -1.709
9.445 3.135 -1.714
9.418 3.159 -1.711
9.428 3.195 -1.715
9.422 3.226 -1.716
9.401 3.252 -1.714
9.411 3.289 -1.718
9.376 3.31 -1.713
9.401 3.335 -1.719
9.381 3.361 -1.717
9.382 3.395 -1.719
9.36 3.42 -1.717
9.371 3.457 -1.721
9.358 3.486 -1.721
9.366 3.522 -1.725
9.358 3.536 -1.724
9.331 3.56 -1.721
9.356 3.603 -1.728
9.348 3.634 -1.729
9.337 3.663 -1.729
9.333 3.695 -1.73
9.332 3.712 -1.731
9.33 3.745 -1.733
9.322 3.776 -1.734
9.321 3.81 -1.736
9.3 3.835 -1.734
9.291 3.866 -1.735
9.295 3.902 -1.738
9.283 3.931 -1.738
9.293 3.952 -1.742
9.273 3.978 -1.74
9.268 4.011 -1.742
9.265 4.044 -1.743
9.25 4.072 -1.743
9.244 4.104 -1.745
9.249 4.141 -1.748
9.239 4.154 -1.747
9.23 4.185 -1.748
9.215 4.213 -1.748
9.223 4.252 -1.752
9.204 4.278 -1.751
9.198 4.31 -1.753
9.188 4.341 -1.753
9.151 4.341 -1.747
9.212 4.405 -1.762
9.194 4.432 -1.762
9.198 4.47 -1.765
9.156 4.485 -1.759
9.101 4.494 -1.751
9.092 4.525 -1.752
9.109 4.569 -1.759
9.085 4.575 -1.755
9.067 4.602 -1.754
9.047 4.627 -1.753
9.038 4.658 -1.754
9.026 4.689 -1.755
9.006 4.714 -1.754
9.004 4.731 -1.755
8.995 4.762 -1.756
8.979 4.79 -1.756
8.994 4.834 -1.762
8.961 4.853 -1.759
8.956 4.887 -1.761
8.941 4.915 -1.761
8.988 4.959 -1.772
8.933 4.966 -1.764
9.043 5.101 -1.794
8.977 5.101 -1.783
8.937 5.116 -1.778
8.91 5.138 -1.776
8.874 5.154 -1.772
8.864 5.167 -1.771
8.855 5.199 -1.773
8.826 5.219 -1.77
8.822 5.254 -1.773
8.805 5.282 -1.773
8.778 5.303 -1.771
8.767 5.334 -1.772
8.76 5.349 -1.772
8.753 5.382 -1.774
8.725 5.403 -1.772
8.699 5.425 -1.77
8.692 5.458 -1.772
8.677 5.487 -1.772
8.656 5.512 -1.772
8.652 5.547 -1.775
8.632 5.554 -1.772
8.604 5.574 -1.77
8.605 5.613 -1.774
8.581 5.636 -1.772
8.556 5.658 -1.771
8.555 5.696 -1.775
8.534 5.721 -1.774
8.515 5.728 -1.772
8.518 5.769 -1.776
8.482 5.783 -1.772
8.462 5.809 -1.772
8.457 5.844 -1.775
8.422 5.86 -1.771
8.412 5.892 -1.773
8.448 5.936 -1.783
8.384 5.931 -1.773
8.368 5.96 -1.774
8.393 6.017 -1.784
8.358 6.032 -1.78
8.318 6.043 -1.775
8.31 6.077 -1.778
8.312 6.098 -1.78
8.282 6.116 -1.778
8.273 6.15 -1.78
8.248 6.172 -1.779
8.236 6.204 -1.781
8.225 6.235 -1.783
8.206 6.262 -1.783
8.229 6.3 -1.791
8.219 6.333 -1.793
8.212 6.41 -1.8
8.159 6.41 -1.793
8.142 6.438 -1.794
8.125 6.466 -1.794
8.079 6.451 -1.786
8.054 6.473 -1.785
8.034 6.498 -1.785
8.013 6.523 -1.785
7.994 6.55 -1.785
7.971 6.572 -1.784
7.945 6.593 -1.783
7.91 6.606 -1.78
7.901 6.619 -1.78
7.88 6.644 -1.78
7.866 6.675 -1.782
7.844 6.699 -1.782
7.824 6.725 -1.782
7.796 6.743 -1.78
7.775 6.767 -1.78
7.736 6.755 -1.773
7.731 6.793 -1.777
7.702 6.811 -1.775
7.685 6.839 -1.776
7.659 6.859 -1.775
7.635 6.881 -1.775
7.613 6.905 -1.775
7.598 6.913 -1.774
7.574 6.935 -1.773
7.553 6.959 -1.773
7.522 6.975 -1.771
7.507 7.005 -1.773
7.484 7.027 -1.772
7.469 7.057 -1.774
7.442 7.077 -1.773
7.423 7.08 -1.771
7.4 7.104 -1.771
7.379 7.128 -1.771
7.347 7.142 -1.769
7.332 7.172 -1.771
7.315 7.2 -1.772
7.293 7.224 -1.772
7.277 7.23 -1.771
7.268 7.267 -1.775
7.239 7.284 -1.773
7.218 7.308 -1.774
7.193 7.33 -1.773
7.176 7.358 -1.775
7.157 7.385 -1.776
7.149 7.4 -1.777
7.123 7.42 -1.776
7.104 7.446 -1.777
7.077 7.464 -1.776
7.053 7.486 -1.776
7.034 7.513 -1.777
7.038 7.565 -1.785
7.01 7.559 -1.78
6.981 7.575 -1.779
6.958 7.598 -1.779
6.96 7.648 -1.786
6.981 7.719 -1.799
6.972 7.759 -1.803
6.922 7.751 -1.796
6.888 7.739 -1.79
6.854 7.748 -1.787
6.825 7.765 -1.786
6.802 7.788 -1.786
6.77 7.801 -1.784
6.747 7.823 -1.784
6.727 7.851 -1.786
6.7 7.869 -1.785
6.689 7.881 -1.786
6.66 7.897 -1.784
6.642 7.926 -1.786
6.622 7.952 -1.788
6.589 7.964 -1.786
6.573 7.995 -1.788
6.547 8.015 -1.788
6.538 8.029 -1.789
6.505 8.041 -1.787
6.479 8.06 -1.786
6.453 8.08 -1.786
6.429 8.102 -1.787
6.402 8.12 -1.786
6.373 8.136 -1.785
6.362 8.147 -1.786
6.329 8.158 -1.783
6.308 8.184 -1.785
6.286 8.208 -1.786
6.271 8.242 -1.789
6.24 8.256 -1.788
6.222 8.286 -1.79
6.189 8.296 -1.788
6.183 8.315 -1.79
6.151 8.327 -1.788
6.127 8.349 -1.789
6.1 8.367 -1.789
6.076 8.389 -1.79
6.049 8.408 -1.79
6.026 8.432 -1.791
6.013 8.441 -1.791
5.981 8.452 -1.789
5.962 8.482 -1.791
5.929 8.491 -1.789
5.902 8.51 -1.789
5.878 8.532 -1.79
5.836 8.529 -1.785
5.821 8.564 -1.789
5.813 8.581 -1.791
5.781 8.592 -1.789
5.762 8.622 -1.792
5.727 8.629 -1.789
5.695 8.638 -1.787
5.672 8.663 -1.789
5.652 8.692 -1.791
5.657 8.729 -1.798
5.614 8.724 -1.792
5.58 8.731 -1.79
5.551 8.745 -1.79
5.535 8.781 -1.794
5.518 8.815 -1.797
5.506 8.857 -1.803
5.506 8.889 -1.808
5.467 8.888 -1.804
5.448 8.92 -1.807
5.393 8.892 -1.797
5.363 8.906 -1.796
5.317 8.894 -1.79
5.286 8.906 -1.789
5.264 8.9 -1.786
5.239 8.922 -1.787
5.208 8.933 -1.786
5.18 8.949 -1.786
5.152 8.966 -1.786
5.126 8.985 -1.787
5.094 8.995 -1.786
5.061 9.002 -1.784
5.049 9.015 -1.785
5.014 9.019 -1.782
4.986 9.034 -1.782
4.965 9.064 -1.785
4.937 9.079 -1.785
4.905 9.09 -1.784
4.887 9.124 -1.788
4.86 9.108 -1.783
4.829 9.119 -1.782
4.814 9.16 -1.788
4.771 9.148 -1.782
4.748 9.175 -1.784
4.729 9.207 -1.788
4.693 9.21 -1.786
4.671 9.201 -1.782
4.652 9.235 -1.786
4.612 9.229 -1.782
4.585 9.247 -1.783
4.558 9.266 -1.784
4.52 9.261 -1.78
4.491 9.277 -1.78
4.464 9.295 -1.781
4.433 9.268 -1.774
4.412 9.298 -1.777
4.387 9.321 -1.779
4.349 9.317 -1.775
4.321 9.334 -1.776
4.286 9.335 -1.774
4.246 9.325 -1.769
4.219 9.305 -1.763
4.189 9.316 -1.763
4.14 9.284 -1.754
4.108 9.292 -1.753
4.071 9.287 -1.749
4.033 9.28 -1.745
3.991 9.262 -1.739
3.975 9.266 -1.739
3.927 9.233 -1.73
3.896 9.242 -1.729
3.858 9.233 -1.725
3.813 9.207 -1.717
3.784 9.218 -1.717
3.745 9.207 -1.712
3.721 9.189 -1.707
3.687 9.188 -1.705
3.646 9.168 -1.699
3.607 9.154 -1.694
3.583 9.176 -1.696
3.54 9.153 -1.689
3.501 9.136 -1.683
3.473 9.149 -1.684
3.447 9.125 -1.678
3.416 9.129 -1.677
3.384 9.13 -1.675
3.351 9.13 -1.673
3.321 9.138 -1.672
3.283 9.121 -1.667
3.257 9.14 -1.669
3.236 9.173 -1.673
3.216 9.161 -1.67
3.185 9.166 -1.669
3.149 9.153 -1.664
3.116 9.152 -1.662
3.086 9.156 -1.661
3.045 9.132 -1.654
3.016 9.14 -1.654
2.994 9.12 -1.649
2.961 9.117 -1.647
2.93 9.118 -1.645
2.894 9.107 -1.641
2.858 9.092 -1.637
2.823 9.08 -1.633
2.792 9.081 -1.631
2.78 9.091 -1.632
2.751 9.1 -1.632
2.716 9.086 -1.628
2.688 9.096 -1.628
2.647 9.065 -1.621
2.612 9.051 -1.616
2.581 9.048 -1.614
2.572 9.072 -1.618
2.54 9.067 -1.615
2.521 9.109 -1.622
2.489 9.104 -1.619
2.459 9.108 -1.619
2.426 9.1 -1.616
2.39 9.077 -1.61
2.365 9.098 -1.613
2.353 9.111 -1.614
2.306 9.048 -1.601
2.274 9.042 -1.598
2.245 9.045 -1.598
2.224 9.085 -1.604
2.197 9.096 -1.605
2.171 9.112 -1.606
2.157 9.119 -1.607
2.13 9.132 -1.608
2.101 9.137 -1.608
2.074 9.153 -1.61
2.045 9.155 -1.609
1.997 9.079 -1.593
1.964 9.062 -1.589
1.962 9.121 -1.599
1.939 9.154 -1.605
1.916 9.187 -1.61
1.886 9.191 -1.609
1.859 9.205 -1.611
1.824 9.182 -1.605
1.783 9.122 -1.593
1.744 9.075 -1.583
1.729 9.078 -1.583
1.708 9.12 -1.59
1.68 9.131 -1.591
1.656 9.158 -1.595
1.629 9.173 -1.597
1.596 9.158 -1.593
1.563 9.14 -1.589
1.549 9.144 -1.589
1.527 9.188 -1.597
1.484 9.107 -1.581
1.447 9.061 -1.571
1.418 9.058 -1.57
1.385 9.033 -1.564
1.36 9.065 -1.569
1.339 9.114 -1.578
1.335 9.19 -1.591
1.295 9.114 -1.577
1.264 9.101 -1.573
1.242 9.157 -1.583
1.22 9.21 -1.592
1.184 9.161 -1.582
1.16 9.198 -1.589
1.146 9.206 -1.59
1.116 9.203 -1.589
1.091 9.234 -1.594
1.056 9.191 -1.585
1.027 9.192 -1.585
0.996 9.177 -1.581
0.963 9.136 -1.573
0.941 9.205 -1.585
0.928 9.224 -1.589
0.895 9.186 -1.581
0.865 9.171 -1.578
0.836 9.174 -1.578
0.811 9.219 -1.586
0.782 9.218 -1.585
0.752 9.209 -1.583
0.737 9.21 -1.583
0.704 9.165 -1.574
0.681 9.238 -1.587
0.655 9.275 -1.594
0.624 9.25 -1.589
0.597 9.283 -1.594
0.559 9.147 -1.569
0.538 9.046 -1.55
0.511 9.081 -1.556
0.482 9.061 -1.552
0.455 9.088 -1.557
0.428 9.137 -1.566
0.399 9.122 -1.563
0.372 9.161 -1.57
0.356 9.114 -1.561
0.332 9.253 -1.586
0.301 9.179 -1.573
0.268 9.076 -1.553
0.24 9.081 -1.554
0.213 9.129 -1.563
0.182 9.045 -1.547
0.155 9.128 -1.562
0.142 9.179 -1.572
0.113 9.16 -1.568
0.084 9.15 -1.566
0.055 9.186 -1.573
0.027 9.206 -1.577
-0.002 9.129 -1.562
-0.031 9.153 -1.567
-0.045 9.119 -1.561
-0.074 9.172 -1.57
-0.104 9.207 -1.577
-0.132 9.195 -1.575
-0.161 9.2 -1.576
-0.189 9.137 -1.564
-0.218 9.128 -1.563
-0.231 9.087 -1.555
-0.26 9.11 -1.56
-0.288 9.066 -1.552
-0.315 9.021 -1.544
-0.345 9.075 -1.554
-0.373 9.055 -1.55
-0.404 9.114 -1.561
-0.431 9.091 -1.557
-0.445 9.089 -1.557
-0.47 9.011 -1.543
-0.496 8.956 -1.533
-0.527 9.011 -1.544
-0.557 9.035 -1.548
-0.583 8.998 -1.542
-0.608 8.939 -1.531
-0.63 9.06 -1.554
-0.663 9.125 -1.566
-0.69 9.101 -1.562
-0.719 9.107 -1.564
-0.745 9.069 -1.557
-0.77 9.027 -1.55
-0.796 8.994 -1.544
-0.809 8.981 -1.542
-0.839 8.994 -1.545
-0.87 9.02 -1.55
-0.897 9.01 -1.549
-0.941 9.164 -1.578
-0.963 9.09 -1.565
-0.985 9.026 -1.553
-1.014 9.027 -1.554
-1.043 9.162 -1.579
-1.067 9.116 -1.572
-1.1 9.148 -1.578
-1.108 8.973 -1.546
-1.146 9.053 -1.562
-1.179 9.082 -1.568
-1.217 9.151 -1.581
-1.22 9.063 -1.565
-1.242 9.014 -1.557
-1.274 9.034 -1.561
-1.305 9.051 -1.565
-1.334 9.047 -1.565
-1.358 9.014 -1.56
-1.39 9.035 -1.565
-1.42 9.042 -1.567
-1.423 8.97 -1.554
-1.455 8.987 -1.558
-1.484 8.988 -1.559
-1.532 9.103 -1.581
-1.574 9.174 -1.595
-1.586 9.072 -1.577
-1.636 9.191 -1.601
-1.642 9.142 -1.592
-1.653 9.036 -1.573
-1.676 9.002 -1.568
-1.699 8.97 -1.562
-1.74 9.032 -1.575
-1.765 9.011 -1.572
-1.781 8.942 -1.56
-1.794 8.931 -1.559
-1.809 8.864 -1.547
-1.835 8.846 -1.545
-1.854 8.8 -1.537
-1.888 8.823 -1.543
-1.907 8.779 -1.536
-1.941 8.802 -1.541
-1.981 8.851 -1.552
-1.996 8.854 -1.553
-2.061 9.01 -1.583
-2.034 8.761 -1.537
-2.068 8.785 -1.543
-2.121 8.883 -1.563
-2.13 8.798 -1.548
-2.172 8.851 -1.56
-2.163 8.756 -1.542
-2.193 8.758 -1.544
-2.207 8.696 -1.533
-2.249 8.746 -1.544
-2.269 8.713 -1.539
-2.299 8.715 -1.541
-2.33 8.723 -1.544
-2.374 8.833 -1.566
-2.367 8.695 -1.541
-2.427 8.809 -1.564
-2.456 8.805 -1.565
-2.472 8.757 -1.557
-2.478 8.672 -1.542
-2.504 8.66 -1.541
-2.537 8.673 -1.545
-2.579 8.764 -1.564
-2.622 8.81 -1.574
-2.653 8.811 -1.576
-2.693 8.844 -1.584
-2.706 8.789 -1.575
-2.732 8.775 -1.574
-2.785 8.847 -1.589
-2.755 8.702 -1.562
-2.785 8.704 -1.564
-2.822 8.723 -1.57
-2.968 8.573 -1.552
-2.971 8.493 -1.538
-3.008 8.513 -1.544
-3.033 8.5 -1.543
-3.085 8.563 -1.557
-3.112 8.551 -1.557
-3.124 8.544 -1.557
-3.159 8.555 -1.561
-3.171 8.504 -1.553
-3.199 8.5 -1.554
-3.223 8.482 -1.552
-3.255 8.487 -1.555
-3.273 8.453 -1.55
-3.281 8.435 -1.548
-3.263 8.309 -1.525
-3.317 8.37 -1.539
-3.321 8.305 -1.528
-3.409 8.448 -1.559
-3.413 8.38 -1.548
-3.414 8.308 -1.535
-3.441 8.299 -1.536
-3.496 8.397 -1.556
-3.517 8.373 -1.554
-3.551 8.38 -1.557
-3.549 8.302 -1.544
-3.531 8.188 -1.523
-3.583 8.236 -1.535
-3.619 8.25 -1.54
-3.617 8.21 -1.533
-3.691 8.307 -1.555
-3.699 8.256 -1.547
-3.747 8.292 -1.557
-3.748 8.225 -1.546
-3.779 8.226 -1.548
-3.79 8.182 -1.542
-3.798 8.165 -1.54
-3.865 8.242 -1.558
-3.867 8.178 -1.547
-3.913 8.209 -1.556
-3.951 8.221 -1.561
-3.953 8.159 -1.551
-3.97 8.131 -1.548
-4.024 8.175 -1.559
-4.039 8.174 -1.56
-4.057 8.145 -1.557
-4.041 8.05 -1.54
-4.071 8.046 -1.542
-4.074 7.989 -1.533
-4.102 7.982 -1.534
-4.131 7.977 -1.536
-4.158 7.999 -1.541
-4.184 7.987 -1.542
-4.216 7.986 -1.544
-4.254 7.998 -1.549
-4.281 7.988 -1.55
-4.258 7.886 -1.532
-4.3 7.903 -1.538
-4.319 7.88 -1.536
-4.342 7.892 -1.54
-4.394 7.928 -1.55
-4.405 7.888 -1.545
-4.459 7.928 -1.556
-4.507 7.955 -1.565
-4.547 7.966 -1.57
-4.547 7.909 -1.561
-4.578 7.934 -1.568
-4.602 7.918 -1.568
-4.628 7.906 -1.568
-4.634 7.859 -1.561
-4.675 7.871 -1.567
-4.721 7.894 -1.575
-4.754 7.892 -1.578
-4.777 7.902 -1.582
-4.789 7.866 -1.577
-4.816 7.855 -1.578
-4.839 7.836 -1.577
-4.871 7.833 -1.58
-4.893 7.814 -1.579
-4.904 7.777 -1.574
-4.931 7.793 -1.579
-4.968 7.797 -1.584
-5.005 7.801 -1.588
-5.002 7.742 -1.579
-5.039 7.747 -1.583
-5.039 7.693 -1.575
-5.03 7.628 -1.564
-5.025 7.567 -1.554
-4.987 7.484 -1.537
-4.985 7.431 -1.529
-5.01 7.417 -1.529
-5.044 7.417 -1.533
-5.054 7.382 -1.529
-5.113 7.418 -1.54
-5.205 7.502 -1.563
-5.251 7.542 -1.574
-5.226 7.456 -1.558
-5.269 7.467 -1.564
-5.306 7.47 -1.569
-5.357 7.492 -1.577
-5.357 7.443 -1.57
-5.384 7.431 -1.571
-5.417 7.427 -1.574
-5.432 7.423 -1.575
-5.451 7.401 -1.574
-5.482 7.393 -1.576
-5.513 7.387 -1.579
-5.536 7.37 -1.579
-5.571 7.368 -1.582
-5.586 7.34 -1.58
-5.607 7.343 -1.583
-5.635 7.332 -1.584
-5.676 7.338 -1.59
-5.696 7.317 -1.589
-5.73 7.313 -1.592
-5.764 7.309 -1.595
-5.78 7.281 -1.593
-5.79 7.271 -1.593
-5.801 7.237 -1.589
-5.836 7.234 -1.593
-5.857 7.214 -1.593
-5.9 7.22 -1.598
-5.916 7.194 -1.597
-5.924 7.157 -1.592
-5.942 7.157 -1.594
-5.942 7.111 -1.588
-5.958 7.085 -1.586
-5.988 7.075 -1.588
-6.036 7.086 -1.595
-6.069 7.081 -1.599
-6.088 7.057 -1.598
-6.102 7.029 -1.595
-6.125 7.033 -1.599
-6.151 7.018 -1.6
-6.167 6.993 -1.598
-6.197 6.982 -1.601
-6.218 6.961 -1.6
-6.254 6.958 -1.604
-6.338 7.007 -1.621
-6.339 6.986 -1.619
-6.364 6.969 -1.619
-6.363 6.925 -1.613
-6.369 6.887 -1.609
-6.389 6.866 -1.609
-6.46 6.899 -1.622
-6.496 6.893 -1.626
-6.489 6.843 -1.618
-6.514 6.848 -1.622
-6.526 6.818 -1.619
-6.561 6.811 -1.623
-6.568 6.775 -1.619
-6.616 6.783 -1.626
-6.634 6.758 -1.625
-6.674 6.756 -1.63
-6.675 6.736 -1.628
-6.716 6.735 -1.633
-6.744 6.72 -1.635
-6.761 6.695 -1.634
-6.772 6.664 -1.631
-6.801 6.651 -1.633
-6.846 6.653 -1.639
-6.872 6.657 -1.643
-6.898 6.641 -1.645
-6.933 6.633 -1.649
-6.987 6.643 -1.657
-7.002 6.615 -1.655
-6.994 6.566 -1.648
-7.039 6.567 -1.654
-7.067 6.572 -1.659
-7.08 6.543 -1.657
-7.096 6.517 -1.656
-7.118 6.496 -1.656
-7.156 6.489 -1.661
-7.188 6.477 -1.663
-7.21 6.456 -1.664
-7.224 6.449 -1.665
-7.258 6.438 -1.668
-7.29 6.425 -1.671
-7.325 6.415 -1.675
-7.382 6.425 -1.684
-7.391 6.392 -1.681
-7.401 6.36 -1.679
-7.437 6.351 -1.683
-7.47 6.359 -1.688
-7.49 6.335 -1.688
-7.525 6.324 -1.692
-7.559 6.313 -1.695
-7.585 6.294 -1.697
-7.62 6.283 -1.701
-7.651 6.268 -1.703
-7.677 6.27 -1.707
-7.706 6.253 -1.709
-7.745 6.245 -1.714
-7.77 6.224 -1.715
-7.772 6.186 -1.711
-7.81 6.176 -1.715
-7.826 6.149 -1.715
-7.863 6.138 -1.719
-7.88 6.132 -1.721
-7.921 6.124 -1.726
-7.943 6.101 -1.726
-7.978 6.088 -1.73
-8.003 6.068 -1.731
-8.052 6.065 -1.738
-8.082 6.048 -1.741
-8.1 6.042 -1.743
-8.155 6.043 -1.751
-8.185 6.026 -1.754
-8.229 6.019 -1.759
-8.253 5.996 -1.761
-8.287 5.982 -1.764
-8.336 5.978 -1.771
-8.363 5.977 -1.775
-8.404 5.967 -1.78
-8.433 5.947 -1.782
-8.474 5.937 -1.787
-8.522 5.93 -1.794
-8.548 5.909 -1.796
-8.591 5.899 -1.801
-8.615 5.895 -1.804
-8.625 5.863 -1.803
-8.637 5.831 -1.801
-8.706 5.838 -1.812
-8.791 5.856 -1.827
-8.828 5.84 -1.831
-8.843 5.81 -1.831
-8.881 5.795 -1.835
-8.914 5.797 -1.84
-8.928 5.766 -1.839
-8.86 5.683 -1.82
-8.884 5.659 -1.822
-8.923 5.645 -1.827
-9.013 5.662 -1.842
-9.067 5.656 -1.85
-9.088 5.65 -1.853
-9.114 5.626 -1.855
-9.133 5.599 -1.855
-9.152 5.571 -1.855
-9.171 5.543 -1.856
-9.19 5.515 -1.856
-9.214 5.49 -1.858
-9.225 5.457 -1.856
-9.24 5.447 -1.858
-9.245 5.411 -1.855
-9.274 5.389 -1.858
-9.291 5.36 -1.858
-9.308 5.33 -1.858
-9.333 5.306 -1.859
-9.357 5.281 -1.861
-9.356 5.261 -1.859
-9.378 5.234 -1.86
-9.394 5.205 -1.86
-9.412 5.176 -1.86
-9.429 5.147 -1.86
-9.446 5.118 -1.861
-9.469 5.092 -1.862
-9.481 5.079 -1.863
-9.5 5.051 -1.864
-9.519 5.023 -1.864
-9.535 4.993 -1.864
-9.582 4.98 -1.871
-9.575 4.938 -1.866
-9.636 4.931 -1.876
-9.651 4.919 -1.877
-9.652 4.882 -1.874
-9.629 4.832 -1.866
-9.7 4.83 -1.878
-9.731 4.807 -1.881
-9.753 4.78 -1.883
-9.767 4.749 -1.882
-9.746 4.72 -1.876
-9.739 4.679 -1.872
-9.702 4.623 -1.862
-9.724 4.596 -1.863
-9.751 4.572 -1.866
-9.771 4.543 -1.867
-9.785 4.513 -1.867
-9.799 4.482 -1.867
-9.804 4.466 -1.866
-9.849 4.449 -1.872
-9.889 4.43 -1.878
-9.876 4.387 -1.872
-9.888 4.355 -1.872
-9.925 4.334 -1.877
-9.93 4.299 -1.875
-9.897 4.266 -1.867
-9.917 4.238 -1.868
-9.923 4.204 -1.867
-9.946 4.177 -1.869
-9.951 4.142 -1.867
-9.959 4.109 -1.866
-9.968 4.076 -1.866
-9.994 4.05 -1.868
-9.984 4.027 -1.865
-9.998 3.997 -1.865
-10.001 3.962 -1.863
-10.014 3.93 -1.863
-10.035 3.902 -1.865
-10.035 3.866 -1.863
-10.049 3.835 -1.863
-10.045 3.816 -1.861
-10.074 3.79 -1.864
-10.113 3.769 -1.87
-10.114 3.733 -1.868
-10.135 3.705 -1.87
-10.143 3.672 -1.869
-10.156 3.64 -1.869
-10.177 3.63 -1.872
-10.181 3.595 -1.871
-10.203 3.567 -1.873
-10.181 3.523 -1.866
-10.218 3.5 -1.871
-10.199 3.458 -1.866
-10.249 3.439 -1.873
-10.258 3.406 -1.873
-10.265 3.391 -1.873
-10.266 3.355 -1.871
-10.26 3.318 -1.868
-10.263 3.283 -1.867
-10.284 3.254 -1.869
-10.287 3.22 -1.867
-10.303 3.189 -1.868
-10.338 3.182 -1.874
-10.348 3.15 -1.874
-10.38 3.124 -1.879
-10.401 3.095 -1.881
-10.381 3.053 -1.875
-10.409 3.026 -1.879
-10.413 2.992 -1.878
-10.384 2.966 -1.871
-10.361 2.924 -1.865
-10.338 2.882 -1.859
-10.333 2.846 -1.856
-10.339 2.812 -1.855
-10.347 2.78 -1.855
-10.347 2.745 -1.854
-10.36 2.731 -1.855
-10.363 2.697 -1.854
-10.372 2.665 -1.854
-10.382 2.632 -1.855
-10.382 2.598 -1.853
-10.389 2.565 -1.853
-10.391 2.531 -1.852
-10.403 2.499 -1.852
-10.399 2.481 -1.851
-10.407 2.448 -1.851
-10.422 2.417 -1.852
-10.414 2.381 -1.85
-10.423 2.349 -1.85
-10.44 2.318 -1.852
-10.434 2.282 -1.849
-10.447 2.268 -1.851
-10.454 2.235 -1.851
-10.467 2.204 -1.852
-10.48 2.172 -1.853
-10.473 2.136 -1.851
-10.474 2.102 -1.85
-10.486 2.07 -1.851
-10.491 2.037 -1.85
-10.498 2.021 -1.851
-10.496 1.987 -1.85
-10.499 1.953 -1.849
-10.495 1.918 -1.847
-10.532 1.891 -1.853
-10.517 1.854 -1.849
-10.528 1.822 -1.85
-10.539 1.807 -1.851
-10.529 1.771 -1.848
-10.531 1.737 -1.848
-10.573 1.71 -1.855
-10.596 1.68 -1.858
-10.582 1.643 -1.854
-10.583 1.61 -1.854
-10.579 1.592 -1.852
-10.584 1.559 -1.852
-10.591 1.526 -1.853
-10.604 1.494 -1.854
-10.618 1.462 -1.856
-10.632 1.43 -1.858
-10.613 1.393 -1.854
-10.61 1.359 -1.852
-10.6 1.324 -1.85
-10.593 1.289 -1.847
-10.589 1.255 -1.846
-10.591 1.221 -1.846
-10.583 1.203 -1.844
-10.571 1.168 -1.841
-10.561 1.134 -1.838
-10.565 1.101 -1.838
-10.572 1.068 -1.839
-10.569 1.034 -1.838
-10.588 1.002 -1.841
-10.596 0.986 -1.842
-10.616 0.955 -1.845
-10.639 0.923 -1.849
-10.622 0.888 -1.845
-10.619 0.854 -1.844
-10.618 0.82 -1.843
-10.618 0.787 -1.843
-10.636 0.755 -1.846
-10.634 0.738 -1.845
-10.626 0.703 -1.843
-10.622 0.67 -1.842
-10.593 0.634 -1.836
-10.583 0.6 -1.834
-10.573 0.566 -1.832
-10.576 0.55 -1.832
-10.578 0.517 -1.832
-10.577 0.483 -1.832
-10.571 0.45 -1.831
-10.566 0.416 -1.83
-10.595 0.384 -1.835
-10.559 0.35 -1.828
-10.586 0.317 -1.832
-10.594 0.301 -1.834
-10.613 0.268 -1.837
-10.613 0.235 -1.837
-10.651 0.202 -1.844
-10.66 0.169 -1.846
-10.67 0.136 -1.847
-10.69 0.102 -1.851
-10.628 0.051 -1.839
-10.592 0.018 -1.833
-10.59 -0.015 -1.832
-10.592 -0.049 -1.833
-10.58 -0.082 -1.831
-10.562 -0.115 -1.827
-10.55 -0.148 -1.825
-10.546 -0.165 -1.824
-10.537 -0.198 -1.823
-10.521 -0.23 -1.82
-10.532 -0.264 -1.822
-10.527 -0.297 -1.822
-10.522 -0.33 -1.821
-10.527 -0.363 -1.822
-10.523 -0.379 -1.821
-10.498 -0.411 -1.817
-10.508 -0.445 -1.819
-10.521 -0.478 -1.822
-10.513 -0.511 -1.82
-10.494 -0.543 -1.817
-10.508 -0.577 -1.82
-10.499 -0.593 -1.819
-10.497 -0.626 -1.819
-10.501 -0.66 -1.82
-10.489 -0.692 -1.818
-10.475 -0.724 -1.816
-10.465 -0.756 -1.814
-10.451 -0.788 -1.812
-10.441 -0.804 -1.811
-10.413 -0.835 -1.806
-10.393 -0.866 -1.803
-10.38 -0.898 -1.801
-10.344 -0.928 -1.795
-10.349 -0.961 -1.796
-10.317 -0.991 -1.791
-10.325 -1.024 -1.793
-10.288 -1.037 -1.786
-10.293 -1.07 -1.788
-10.297 -1.103 -1.789
-10.27 -1.133 -1.785
-10.284 -1.167 -1.788
-10.238 -1.195 -1.78
-10.117 -1.213 -1.758
-10.066 -1.223 -1.749
-10.031 -1.251 -1.743
-10.037 -1.284 -1.745
-10.007 -1.312 -1.741
-10.009 -1.344 -1.742
-9.936 -1.367 -1.729
-9.856 -1.387 -1.715
-9.838 -1.416 -1.712
-9.81 -1.428 -1.707
-9.825 -1.462 -1.711
-9.772 -1.485 -1.702
-9.758 -1.515 -1.7
-9.714 -1.539 -1.693
-9.748 -1.576 -1.7
-9.805 -1.617 -1.712
-9.849 -1.64 -1.721
-10.075 -1.709 -1.764
-10.155 -1.755 -1.78
-10.118 -1.782 -1.774
-10.103 -1.812 -1.772
-10.052 -1.836 -1.764
-9.985 -1.856 -1.752
-9.928 -1.861 -1.742
-9.875 -1.884 -1.733
-9.838 -1.909 -1.727
-9.811 -1.936 -1.723
-9.821 -1.97 -1.726
-9.82 -2.002 -1.727
-9.81 -2.032 -1.727
-9.799 -2.046 -1.725
-9.767 -2.071 -1.721
-9.732 -2.096 -1.715
-9.725 -2.126 -1.715
-9.709 -2.155 -1.713
-9.683 -2.181 -1.71
-9.636 -2.202 -1.702
-9.619 -2.23 -1.7
-9.61 -2.244 -1.699
-9.632 -2.281 -1.705
-9.649 -2.317 -1.709
-9.631 -2.345 -1.707
-9.623 -2.375 -1.707
-9.597 -2.4 -1.703
-9.53 -2.416 -1.692
-9.511 -2.427 -1.689
-9.457 -2.445 -1.681
-9.455 -2.476 -1.682
-9.449 -2.506 -1.682
-9.436 -2.534 -1.681
-9.447 -2.569 -1.685
-9.431 -2.597 -1.683
-9.446 -2.617 -1.687
-9.455 -2.651 -1.69
-9.441 -2.679 -1.689
-9.404 -2.701 -1.683
-9.376 -2.725 -1.68
-9.413 -2.768 -1.689
-9.35 -2.781 -1.678
-9.3 -2.782 -1.669
-9.335 -2.825 -1.678
-9.273 -2.838 -1.667
-9.305 -2.88 -1.675
-9.311 -2.914 -1.678
-9.291 -2.939 -1.676
-9.308 -2.977 -1.681
-9.272 -2.998 -1.676
-9.269 -3.013 -1.677
-9.273 -3.046 -1.679
-9.224 -3.062 -1.671
-9.155 -3.071 -1.66
-9.225 -3.127 -1.675
-9.161 -3.138 -1.665
-9.142 -3.163 -1.663
-9.109 -3.168 -1.658
-9.103 -3.198 -1.658
-9.115 -3.234 -1.663
-9.116 -3.267 -1.665
-9.046 -3.274 -1.653
-9.042 -3.305 -1.654
-9.015 -3.327 -1.651
-8.975 -3.344 -1.645
-8.986 -3.365 -1.649
-9.012 -3.407 -1.656
-9.081 -3.465 -1.671
-9.044 -3.484 -1.666
-9.007 -3.502 -1.661
-9.033 -3.545 -1.669
-9.022 -3.573 -1.669
-9.032 -3.594 -1.672
-8.999 -3.613 -1.667
-8.977 -3.637 -1.665
-8.914 -3.645 -1.655
-8.91 -3.676 -1.657
-8.879 -3.695 -1.653
-8.849 -3.716 -1.649
-8.852 -3.733 -1.651
-8.828 -3.756 -1.648
-8.79 -3.773 -1.643
-8.753 -3.789 -1.638
-8.711 -3.804 -1.632
-8.706 -3.834 -1.633
-8.686 -3.858 -1.632
-8.661 -3.863 -1.628
-8.677 -3.903 -1.634
-8.69 -3.942 -1.639
-8.676 -3.968 -1.638
-8.629 -3.98 -1.631
-8.602 -4.0 -1.629
-8.588 -4.027 -1.628
-8.546 -4.023 -1.621
-8.507 -4.038 -1.615
-8.471 -4.053 -1.611
-8.437 -4.07 -1.606
-8.429 -4.099 -1.607
-8.386 -4.111 -1.601
-8.372 -4.136 -1.601
-8.29 -4.128 -1.587
-8.308 -4.154 -1.592
-8.235 -4.15 -1.579
-8.312 -4.221 -1.598
-8.244 -4.219 -1.587
-8.159 -4.208 -1.572
-8.14 -4.231 -1.571
-8.188 -4.289 -1.583
-8.167 -4.294 -1.581
-8.147 -4.316 -1.579
-8.149 -4.35 -1.582
-8.121 -4.368 -1.579
-7.973 -4.321 -1.551
-8.042 -4.391 -1.569
-7.976 -4.388 -1.558
-8.088 -4.466 -1.583
-8.083 -4.496 -1.585
-8.11 -4.544 -1.593
-8.115 -4.58 -1.597
-8.056 -4.581 -1.588
-7.978 -4.57 -1.574
-7.986 -4.608 -1.579
-7.941 -4.599 -1.571
-8.006 -4.67 -1.588
-7.851 -4.613 -1.558
-7.729 -4.574 -1.535
-7.886 -4.7 -1.572
-7.957 -4.776 -1.59
-7.962 -4.813 -1.595
-7.98 -4.841 -1.6
-8.007 -4.892 -1.609
-8.015 -4.931 -1.614
-7.991 -4.951 -1.613
-7.92 -4.942 -1.601
-7.975 -5.01 -1.616
-7.916 -5.008 -1.606
-7.96 -5.071 -1.619
-7.895 -5.048 -1.607
-8.065 -5.191 -1.648
-8.087 -5.241 -1.656
-8.136 -5.309 -1.671
-7.912 -5.199 -1.625
-8.152 -5.393 -1.682
-8.179 -5.447 -1.691
-8.184 -5.469 -1.694
-8.145 -5.481 -1.69
-8.107 -5.492 -1.685
-8.098 -5.523 -1.687
-8.074 -5.544 -1.685
-8.034 -5.553 -1.68
-8.019 -5.581 -1.681
-8.006 -5.59 -1.68
-7.98 -5.61 -1.678
-7.95 -5.626 -1.675
-7.909 -5.635 -1.67
-7.921 -5.68 -1.677
-7.89 -5.696 -1.674
-7.853 -5.707 -1.669
-7.835 -5.731 -1.669
-7.816 -5.737 -1.667
-7.805 -5.766 -1.669
-7.785 -5.789 -1.668
-7.738 -5.792 -1.662
-7.731 -5.825 -1.664
-7.702 -5.841 -1.662
-7.688 -5.869 -1.663
-7.672 -5.876 -1.661
-7.632 -5.883 -1.656
-7.632 -5.922 -1.661
-7.601 -5.936 -1.658
-7.572 -5.951 -1.655
-7.567 -5.986 -1.658
-7.551 -6.012 -1.659
-7.509 -5.998 -1.651
-7.5 -6.029 -1.654
-7.462 -6.038 -1.649
-7.452 -6.069 -1.651
-7.409 -6.072 -1.646
-7.41 -6.112 -1.65
-7.386 -6.131 -1.649
-7.372 -6.139 -1.648
-7.327 -6.141 -1.642
-7.337 -6.189 -1.649
-7.289 -6.188 -1.642
-7.267 -6.208 -1.642
-7.267 -6.248 -1.646
-7.225 -6.251 -1.641
-7.203 -6.252 -1.638
-7.158 -6.253 -1.632
-7.103 -6.244 -1.623
-7.055 -6.242 -1.616
-7.003 -6.236 -1.608
-6.994 -6.267 -1.611
-6.961 -6.277 -1.607
-6.928 -6.287 -1.604
-6.889 -6.271 -1.597
-6.852 -6.277 -1.593
-6.802 -6.271 -1.585
-6.773 -6.284 -1.583
-6.762 -6.313 -1.585
-6.728 -6.321 -1.581
-6.648 -6.285 -1.566
-6.646 -6.304 -1.568
-6.588 -6.288 -1.558
-6.553 -6.294 -1.554
-6.516 -6.298 -1.55
-6.452 -6.276 -1.539
-6.417 -6.281 -1.535
-6.365 -6.27 -1.526
-6.348 -6.273 -1.525
-6.291 -6.256 -1.515
-6.256 -6.26 -1.511
-6.261 -6.305 -1.517
-6.237 -6.32 -1.516
-6.211 -6.334 -1.515
-6.252 -6.415 -1.531
-6.22 -6.422 -1.528
-6.167 -6.388 -1.516
-6.128 -6.388 -1.511
-6.109 -6.409 -1.512
-6.127 -6.468 -1.522
-6.066 -6.444 -1.511
-6.086 -6.506 -1.522
-6.062 -6.521 -1.521
-6.03 -6.507 -1.515
-6.027 -6.545 -1.52
-6.139 -6.708 -1.556
-6.137 -6.748 -1.561
-6.002 -6.642 -1.53
-6.105 -6.798 -1.564
-6.074 -6.807 -1.561
-6.066 -6.82 -1.562
-6.023 -6.814 -1.556
-6.01 -6.843 -1.558
-5.851 -6.705 -1.52
-5.93 -6.837 -1.548
-5.92 -6.869 -1.551
-5.863 -6.848 -1.541
-5.89 -6.9 -1.552
-5.863 -6.913 -1.55
-5.844 -6.934 -1.551
-5.808 -6.936 -1.547
-5.793 -6.962 -1.549
-5.757 -6.963 -1.545
-5.747 -6.996 -1.549
-5.723 -6.989 -1.545
-5.712 -7.02 -1.548
-5.687 -7.035 -1.547
-5.662 -7.048 -1.546
-5.641 -7.068 -1.546
-5.6 -7.062 -1.541
-5.595 -7.101 -1.546
-5.59 -7.118 -1.548
-5.544 -7.106 -1.541
-5.541 -7.148 -1.547
-5.513 -7.158 -1.545
-5.497 -7.184 -1.547
-5.461 -7.183 -1.543
-5.45 -7.216 -1.546
-5.418 -7.22 -1.544
-5.387 -7.204 -1.538
-5.388 -7.252 -1.545
-5.343 -7.239 -1.538
-5.337 -7.278 -1.543
-5.299 -7.274 -1.538
-5.281 -7.297 -1.54
-5.248 -7.301 -1.537
-5.25 -7.327 -1.541
-5.209 -7.319 -1.536
-5.205 -7.361 -1.541
-5.176 -7.369 -1.54
-5.147 -7.377 -1.538
-5.119 -7.387 -1.536
-5.099 -7.408 -1.537
-5.072 -7.393 -1.532
-5.064 -7.432 -1.537
-5.03 -7.432 -1.534
-5.001 -7.439 -1.532
-4.978 -7.455 -1.532
-4.956 -7.474 -1.533
-4.921 -7.471 -1.529
-4.905 -7.498 -1.531
-4.879 -7.484 -1.526
-4.851 -7.493 -1.525
-4.838 -7.525 -1.529
-4.8 -7.517 -1.524
-4.79 -7.553 -1.528
-4.747 -7.539 -1.522
-4.735 -7.572 -1.526
-4.704 -7.549 -1.519
-4.696 -7.589 -1.525
-4.652 -7.57 -1.517
-4.642 -7.608 -1.522
-4.613 -7.614 -1.521
-4.59 -7.631 -1.521
-4.552 -7.621 -1.516
-4.554 -7.652 -1.521
-4.511 -7.634 -1.514
-4.498 -7.667 -1.518
-4.462 -7.661 -1.514
-4.45 -7.695 -1.518
-4.401 -7.667 -1.509
-4.39 -7.702 -1.514
-4.367 -7.691 -1.51
-4.352 -7.721 -1.513
-4.311 -7.704 -1.507
-4.291 -7.726 -1.509
-4.25 -7.709 -1.502
-4.233 -7.736 -1.505
-4.208 -7.747 -1.505
-4.195 -7.752 -1.504
-4.16 -7.746 -1.5
-4.142 -7.772 -1.503
-4.101 -7.753 -1.496
-4.09 -7.79 -1.501
-4.051 -7.775 -1.496
-4.035 -7.806 -1.499
-4.015 -7.796 -1.496
-4.0 -7.828 -1.5
-3.965 -7.819 -1.496
-3.948 -7.848 -1.499
-3.916 -7.844 -1.496
-3.896 -7.867 -1.498
-3.865 -7.867 -1.495
-3.85 -7.898 -1.499
-3.834 -7.896 -1.497
-3.81 -7.911 -1.498
-3.771 -7.893 -1.492
-3.753 -7.919 -1.495
-3.726 -7.927 -1.494
-3.7 -7.935 -1.493
-3.672 -7.942 -1.492
-3.664 -7.956 -1.494
-3.629 -7.946 -1.49
-3.607 -7.965 -1.491
-3.586 -7.983 -1.493
-3.549 -7.969 -1.488
-3.524 -7.98 -1.488
-3.496 -7.984 -1.486
-3.487 -7.999 -1.488
-3.466 -8.019 -1.49
-3.425 -7.992 -1.482
-3.402 -8.008 -1.483
-3.373 -8.009 -1.481
-3.35 -8.025 -1.482
-3.332 -8.054 -1.486
-3.312 -8.041 -1.482
-3.274 -8.021 -1.476
-3.247 -8.027 -1.476
-3.228 -8.052 -1.478
-3.214 -8.091 -1.484
-3.178 -8.074 -1.479
-3.153 -8.084 -1.479
-3.127 -8.094 -1.479
-3.111 -8.089 -1.477
-3.091 -8.114 -1.48
-3.062 -8.114 -1.478
-3.036 -8.122 -1.478
-3.01 -8.131 -1.478
-2.986 -8.145 -1.478
-2.956 -8.141 -1.476
-2.937 -8.129 -1.473
-2.902 -8.112 -1.468
-2.881 -8.133 -1.47
-2.85 -8.127 -1.467
-2.824 -8.134 -1.466
-2.796 -8.137 -1.465
-2.774 -8.155 -1.467
-2.755 -8.141 -1.464
-2.728 -8.146 -1.463
-2.7 -8.147 -1.461
-2.681 -8.176 -1.465
-2.656 -8.188 -1.466
-2.626 -8.181 -1.463
-2.593 -8.169 -1.459
-2.574 -8.152 -1.455
-2.54 -8.134 -1.45
-2.522 -8.164 -1.454
-2.492 -8.159 -1.452
-2.46 -8.148 -1.448
-2.434 -8.152 -1.448
-2.407 -8.156 -1.447
-2.37 -8.124 -1.439
-2.355 -8.12 -1.438
-2.326 -8.116 -1.436
-2.299 -8.118 -1.434
-2.268 -8.108 -1.431
-2.24 -8.104 -1.429
-2.214 -8.109 -1.429
-2.186 -8.106 -1.427
-2.167 -8.089 -1.423
-2.138 -8.08 -1.42
-2.113 -8.091 -1.421
-2.082 -8.076 -1.417
-2.053 -8.066 -1.413
-2.023 -8.057 -1.41
-1.999 -8.065 -1.411
-1.984 -8.061 -1.409
-1.956 -8.055 -1.407
-1.929 -8.056 -1.406
-1.9 -8.046 -1.403
-1.869 -8.027 -1.398
-1.844 -8.033 -1.398
-1.813 -8.014 -1.394
-1.804 -8.032 -1.397
-1.777 -8.03 -1.395
-1.743 -7.999 -1.388
-1.715 -7.991 -1.386
-1.69 -7.995 -1.385
-1.662 -7.988 -1.383
-1.637 -7.994 -1.383
-1.62 -7.973 -1.379
-1.594 -7.976 -1.379
-1.568 -7.973 -1.377
-1.541 -7.971 -1.376
-1.514 -7.962 -1.373
-1.487 -7.957 -1.371
-1.459 -7.948 -1.369
-1.443 -7.933 -1.365
-1.418 -7.934 -1.365
-1.394 -7.942 -1.365
-1.366 -7.933 -1.363
-1.337 -7.914 -1.359
-1.311 -7.912 -1.357
-1.285 -7.906 -1.356
-1.271 -7.901 -1.354
-1.249 -7.918 -1.357
-1.217 -7.881 -1.349
-1.194 -7.897 -1.351
-1.168 -7.889 -1.349
-1.133 -7.824 -1.336
-1.1 -7.773 -1.326
-1.075 -7.767 -1.324
-1.06 -7.753 -1.321
-1.036 -7.756 -1.321
-1.011 -7.756 -1.321
-0.985 -7.743 -1.318
-0.959 -7.736 -1.316
-0.935 -7.741 -1.316
-0.909 -7.731 -1.314
-0.897 -7.732 -1.314
-0.87 -7.709 -1.309
-0.845 -7.706 -1.308
-0.818 -7.689 -1.304
-0.795 -7.698 -1.305
-0.77 -7.69 -1.304
-0.747 -7.705 -1.306
-0.735 -7.706 -1.306
-0.71 -7.7 -1.304
-0.684 -7.683 -1.301
-0.659 -7.685 -1.301
-0.634 -7.675 -1.299
-0.61 -7.671 -1.297
-0.586 -7.677 -1.298
-0.576 -7.711 -1.304
-0.556 -7.758 -1.313
-0.531 -7.754 -1.312
-0.506 -7.75 -1.311
-0.482 -7.753 -1.311
-0.457 -7.751 -1.31
-0.432 -7.746 -1.309
-0.42 -7.735 -1.307
-0.395 -7.736 -1.307
-0.37 -7.724 -1.304
-0.346 -7.717 -1.303
-0.322 -7.724 -1.304
-0.298 -7.729 -1.305
-0.272 -7.706 -1.3
-0.247 -7.687 -1.297
-0.235 -7.69 -1.297
-0.211 -7.691 -1.297
-0.187 -7.685 -1.296
-0.163 -7.676 -1.294
-0.138 -7.669 -1.293
-0.114 -7.663 -1.292
-0.09 -7.661 -1.291
-0.078 -7.652 -1.289
-0.054 -7.656 -1.29
-0.03 -7.634 -1.286
-0.006 -7.638 -1.287
0.018 -7.629 -1.285
0.042 -7.632 -1.286
0.066 -7.636 -1.287
0.078 -7.622 -1.284
0.102 -7.616 -1.283
0.126 -7.618 -1.283
0.15 -7.619 -1.284
0.174 -7.615 -1.283
0.197 -7.591 -1.279
0.221 -7.604 -1.281
0.233 -7.586 -1.278
0.257 -7.585 -1.278
0.281 -7.584 -1.278
0.304 -7.565 -1.275
0.328 -7.568 -1.275
0.351 -7.563 -1.275
0.375 -7.556 -1.273
0.387 -7.558 -1.274
0.411 -7.564 -1.275
0.433 -7.539 -1.271
0.456 -7.528 -1.269
0.482 -7.556 -1.275
0.504 -7.527 -1.269
0.528 -7.535 -1.271
0.541 -7.542 -1.273
0.563 -7.517 -1.268
0.587 -7.523 -1.27
0.612 -7.539 -1.273
0.634 -7.515 -1.269
0.658 -7.523 -1.271
0.682 -7.525 -1.272
0.693 -7.516 -1.27
0.716 -7.502 -1.268
0.741 -7.517 -1.271
0.763 -7.495 -1.268
0.785 -7.483 -1.266
0.811 -7.502 -1.27
0.832 -7.474 -1.265
0.855 -7.468 -1.264
0.866 -7.458 -1.263
0.889 -7.452 -1.262
0.912 -7.447 -1.262
0.936 -7.454 -1.264
0.958 -7.435 -1.261
0.981 -7.428 -1.26
1.006 -7.439 -1.263
1.017 -7.43 -1.261
1.041 -7.434 -1.263
1.065 -7.435 -1.263
1.087 -7.422 -1.261
1.111 -7.424 -1.263
1.133 -7.413 -1.261
1.154 -7.392 -1.258
1.169 -7.413 -1.262
1.191 -7.4 -1.26
1.212 -7.384 -1.258
1.237 -7.39 -1.26
1.26 -7.384 -1.26
1.284 -7.384 -1.26
1.305 -7.37 -1.259
1.319 -7.382 -1.261
1.342 -7.376 -1.261
1.362 -7.354 -1.257
1.388 -7.365 -1.26
1.407 -7.338 -1.256
1.431 -7.339 -1.257
1.455 -7.338 -1.258
1.465 -7.332 -1.257
1.486 -7.314 -1.255
1.51 -7.315 -1.256
1.533 -7.31 -1.256
1.555 -7.3 -1.255
1.579 -7.304 -1.256
1.6 -7.288 -1.254
1.622 -7.281 -1.254
1.637 -7.294 -1.257
1.658 -7.279 -1.255
1.681 -7.276 -1.255
1.706 -7.278 -1.257
1.731 -7.282 -1.259
1.755 -7.28 -1.259
1.765 -7.274 -1.259
1.788 -7.268 -1.259
1.813 -7.272 -1.26
1.836 -7.264 -1.26
1.859 -7.261 -1.26
1.884 -7.262 -1.262
1.905 -7.249 -1.26
1.915 -7.242 -1.26
1.938 -7.238 -1.26
1.962 -7.237 -1.261
1.986 -7.235 -1.262
2.008 -7.225 -1.261
2.032 -7.222 -1.262
2.055 -7.218 -1.262
2.079 -7.215 -1.263
2.09 -7.212 -1.263
2.113 -7.207 -1.263
2.135 -7.197 -1.263
2.158 -7.194 -1.263
2.178 -7.176 -1.261
2.2 -7.169 -1.261
2.227 -7.175 -1.264
2.235 -7.162 -1.262
2.263 -7.172 -1.265
2.286 -7.168 -1.266
2.308 -7.158 -1.265
2.331 -7.154 -1.266
2.355 -7.15 -1.267
2.371 -7.124 -1.263
2.389 -7.139 -1.267
2.414 -7.139 -1.268
2.435 -7.128 -1.267
2.457 -7.12 -1.267
2.485 -7.129 -1.271
2.507 -7.119 -1.27
2.529 -7.111 -1.27
2.543 -7.115 -1.272
2.566 -7.107 -1.272
2.589 -7.101 -1.272
2.617 -7.109 -1.275
2.633 -7.084 -1.272
2.657 -7.08 -1.273
2.682 -7.08 -1.275
2.696 -7.082 -1.276
2.718 -7.073 -1.276
2.748 -7.085 -1.28
2.763 -7.058 -1.276
2.759 -6.981 -1.263
2.781 -6.973 -1.263
2.805 -6.971 -1.264
2.828 -6.964 -1.264
2.842 -6.967 -1.266
2.856 -6.938 -1.262
2.88 -6.934 -1.263
2.909 -6.944 -1.267
2.93 -6.933 -1.266
2.956 -6.932 -1.268
2.97 -6.937 -1.27
2.993 -6.929 -1.27
3.013 -6.916 -1.269
3.035 -6.908 -1.27
3.058 -6.901 -1.27
3.082 -6.896 -1.271
3.112 -6.906 -1.275
3.136 -6.9 -1.276
3.145 -6.892 -1.275
3.173 -6.896 -1.278
3.191 -6.877 -1.276
3.218 -6.88 -1.279
3.245 -6.88 -1.281
3.262 -6.861 -1.279
3.3 -6.886 -1.287
3.401 -7.069 -1.325
3.428 -7.069 -1.327
3.451 -7.058 -1.327
3.474 -7.049 -1.328
3.476 -6.998 -1.319
3.514 -7.02 -1.326
3.535 -7.007 -1.326
3.546 -7.002 -1.326
3.569 -6.992 -1.326
3.583 -6.965 -1.323
3.599 -6.942 -1.32
3.617 -6.924 -1.319
3.649 -6.931 -1.323
3.672 -6.923 -1.324
3.685 -6.921 -1.324
3.704 -6.904 -1.323
3.723 -6.887 -1.322
3.744 -6.874 -1.322
3.761 -6.855 -1.32
3.78 -6.838 -1.319
3.812 -6.845 -1.323
3.825 -6.843 -1.324
3.844 -6.827 -1.323
3.864 -6.812 -1.323
3.886 -6.801 -1.323
3.903 -6.782 -1.321
3.922 -6.765 -1.32
3.953 -6.769 -1.324
3.966 -6.767 -1.325
3.985 -6.751 -1.324
4.011 -6.747 -1.326
4.031 -6.732 -1.325
4.048 -6.713 -1.324
4.057 -6.68 -1.32
4.09 -6.687 -1.324
4.105 -6.687 -1.325
4.133 -6.686 -1.328
4.152 -6.67 -1.327
4.174 -6.659 -1.328
4.191 -6.639 -1.326
4.206 -6.617 -1.324
4.235 -6.617 -1.327
4.262 -6.612 -1.329
4.271 -6.604 -1.329
4.295 -6.595 -1.33
4.325 -6.597 -1.333
4.349 -6.588 -1.334
4.373 -6.579 -1.335
4.383 -6.549 -1.332
4.414 -6.552 -1.335
4.426 -6.546 -1.336
4.45 -6.537 -1.337
